# .PCD v0.7 - Point Cloud Data file format
VERSION 0.7
FIELDS x y z intensity
SIZE 4 4 4 4
TYPE F F F F
COUNT 1 1 1 1
WIDTH 610
HEIGHT 1
VIEWPOINT 0 0 0 1 0 0 0
POINTS 610
DATA ascii
1909.2952 21097.711 40.004612 0
1909.3077 21097.688 40.04229 0
1909.3235 21097.658 40.081539 0
1909.3604 21097.588 40.117516 0
1909.3955 21097.521 40.152889 0
1909.2828 21097.91 39.998245 0
1909.2927 21097.893 40.035591 0
1909.3064 21097.867 40.074955 0
1909.3322 21097.818 40.110012 0
1909.3578 21097.771 40.147995 0
1909.379 21097.73 40.185642 0
1909.4413 21097.613 40.219398 0
1909.2837 21098.084 40.027756 0
1909.2968 21098.061 40.065708 0
1909.3223 21098.014 40.10165 0
1909.3409 21097.979 40.139164 0
1909.3612 21097.939 40.177647 0
1909.4247 21097.82 40.208004 0
1909.676 21097.518 39.540722 0
1909.2799 21098.266 40.01878 0
1909.2928 21098.242 40.055744 0
1909.3159 21098.199 40.092163 0
1909.3361 21098.16 40.129963 0
1909.3522 21098.131 40.167614 0
1909.4001 21098.041 40.200596 0
1909.4281 21097.99 40.23687 0
1909.4589 21097.932 40.274578 0
1909.2787 21098.441 40.011127 0
1909.2905 21098.418 40.04747 0
1909.3141 21098.375 40.084225 0
1909.3337 21098.34 40.120827 0
1909.3536 21098.303 40.157085 0
1909.3834 21098.248 40.192528 0
1909.4037 21098.211 40.230743 0
1909.428 21098.164 40.265965 0
1909.4557 21098.113 40.303524 0
1909.4829 21098.062 40.340225 0
1909.2799 21098.611 40.004242 0
1909.2897 21098.594 40.041908 0
1909.3123 21098.553 40.078434 0
1909.3334 21098.514 40.113358 0
1909.3612 21098.463 40.148983 0
1909.4298 21098.336 40.297977 0
1909.4519 21098.297 40.33556 0
1909.4796 21098.244 40.370651 0
1909.506 21098.195 40.408531 0
1909.5297 21098.152 40.445965 0
1909.2825 21098.779 39.998333 0
1909.2932 21098.758 40.036156 0
1909.3149 21098.719 40.071659 0
1909.3356 21098.682 40.106964 0
1909.4875 21098.404 40.401394 0
1909.5101 21098.363 40.437355 0
1909.5422 21098.305 40.473896 0
1909.5796 21098.236 40.510704 0
1909.2789 21098.955 39.950901 0
1909.286 21098.943 39.98909 0
1909.2969 21098.924 40.025864 0
1909.3169 21098.887 40.06065 0
1909.3386 21098.848 40.095795 0
1909.3612 21098.807 40.132206 0
1909.5297 21098.502 40.461693 0
1909.5447 21098.475 40.49976 0
1909.6062 21098.361 40.532532 0
1909.2788 21099.127 39.907253 0
1909.2831 21099.119 39.94458 0
1909.2916 21099.104 39.982201 0
1909.3019 21099.086 40.017326 0
1909.3214 21099.049 40.052841 0
1909.3414 21099.014 40.088699 0
1909.3655 21098.971 40.123718 0
1909.4216 21098.869 40.268417 0
1909.5392 21098.658 40.487789 0
1909.5531 21098.633 40.526077 0
1909.6287 21098.496 40.558666 0
1909.2784 21099.295 39.824135 0
1909.2792 21099.293 39.862843 0
1909.2837 21099.285 39.898144 0
1909.2898 21099.275 39.936058 0
1909.2963 21099.264 39.972511 0
1909.3051 21099.248 40.008389 0
1909.3257 21099.211 40.043194 0
1909.3452 21099.176 40.078751 0
1909.5271 21098.848 40.127701 0
1909.5406 21098.826 40.474731 0
1909.5469 21098.814 40.512939 0
1909.5782 21098.76 40.549561 0
1909.2808 21099.457 39.743584 0
1909.2839 21099.453 39.781311 0
1909.2843 21099.451 39.818844 0
1909.2858 21099.449 39.85535 0
1909.2905 21099.441 39.892323 0
1909.2953 21099.434 39.929565 0
1909.3018 21099.422 39.964886 0
1909.3124 21099.404 40.001122 0
1909.3304 21099.371 40.036251 0
1909.3514 21099.334 40.070934 0
1909.5483 21098.984 40.502083 0
1909.5692 21098.947 40.537392 0
1909.6266 21098.844 40.571346 0
1909.2925 21099.604 39.623898 0
1909.2882 21099.611 39.662495 0
1909.2832 21099.621 39.699398 0
1909.2853 21099.617 39.737175 0
1909.2911 21099.607 39.773239 0
1909.2921 21099.605 39.809788 0
1909.2932 21099.605 39.846661 0
1909.2972 21099.598 39.884068 0
1909.3021 21099.59 39.920403 0
1909.3085 21099.578 39.956169 0
1909.3173 21099.562 39.991684 0
1909.3362 21099.529 40.026936 0
1909.3566 21099.494 40.059643 0
1909.564 21099.127 40.524231 0
1909.6058 21099.053 40.559418 0
1909.7278 21098.836 40.586742 0
1909.3069 21099.744 39.57756 0
1909.301 21099.754 39.615841 0
1909.2957 21099.764 39.65361 0
1909.293 21099.77 39.69117 0
1909.2924 21099.77 39.728897 0
1909.299 21099.76 39.763412 0
1909.2991 21099.76 39.800652 0
1909.3003 21099.758 39.837914 0
1909.3035 21099.752 39.874596 0
1909.3079 21099.746 39.910019 0
1909.3163 21099.73 39.945618 0
1909.3254 21099.715 39.981716 0
1909.3422 21099.686 40.014648 0
1909.3628 21099.65 40.049351 0
1909.3806 21099.617 40.083675 0
1909.297 21099.768 40.132774 0
1909.2979 21099.766 40.169453 0
1909.3064 21099.752 40.205944 0
1909.5692 21099.287 40.509911 0
1909.6014 21099.23 40.544788 0
1909.6892 21099.074 40.574268 0
1909.3392 21099.85 39.490395 0
1909.3275 21099.871 39.530838 0
1909.3167 21099.891 39.570034 0
1909.3109 21099.902 39.608864 0
1909.306 21099.91 39.645336 0
1909.3042 21099.914 39.683338 0
1909.3 21099.922 39.720741 0
1909.3081 21099.908 39.755402 0
1909.3079 21099.908 39.791977 0
1909.3092 21099.908 39.829304 0
1909.3115 21099.904 39.864113 0
1909.3173 21099.895 39.900646 0
1909.3236 21099.883 39.935944 0
1909.3334 21099.867 39.972115 0
1909.3508 21099.836 40.004524 0
1909.3711 21099.801 40.038746 0
1909.3876 21099.771 40.071949 0
1909.3341 21099.865 40.117149 0
1909.3395 21099.857 40.153721 0
1909.345 21099.848 40.189686 0
1909.5681 21099.457 40.496506 0
1909.6011 21099.398 40.529491 0
1909.6921 21099.238 40.55925 0
1909.8335 21098.988 40.584969 0
1909.3612 21099.975 39.372768 0
1909.3641 21099.971 39.408958 0
1909.3497 21099.998 39.485264 0
1909.3358 21100.021 39.52581 0
1909.3247 21100.043 39.564693 0
1909.3192 21100.053 39.601925 0
1909.3151 21100.061 39.639267 0
1909.3154 21100.061 39.676655 0
1909.3085 21100.072 39.713028 0
1909.3179 21100.055 39.748089 0
1909.3186 21100.055 39.784824 0
1909.3187 21100.055 39.821651 0
1909.3204 21100.053 39.856899 0
1909.3251 21100.045 39.892517 0
1909.3345 21100.029 39.927948 0
1909.342 21100.016 39.961777 0
1909.3607 21099.984 39.99601 0
1909.3785 21099.953 40.029732 0
1909.3936 21099.928 40.063202 0
1909.4648 21099.805 40.273102 0
1909.4824 21099.773 40.307819 0
1909.4996 21099.744 40.343311 0
1909.5195 21099.709 40.376881 0
1909.5425 21099.67 40.411785 0
1909.5671 21099.627 40.44669 0
1909.635 21099.508 40.513992 0
1909.6963 21099.4 40.545658 0
1909.8246 21099.176 40.57272 0
1909.3688 21100.127 39.37072 0
1909.3599 21100.145 39.481705 0
1909.3561 21100.152 39.51952 0
1909.3519 21100.16 39.557117 0
1909.3451 21100.172 39.593975 0
1909.337 21100.186 39.632416 0
1909.3246 21100.209 39.670277 0
1909.3173 21100.221 39.708424 0
1909.3174 21100.221 39.74456 0
1909.3228 21100.213 39.780437 0
1909.3281 21100.203 39.814159 0
1909.3319 21100.197 39.850563 0
1909.3363 21100.191 39.88575 0
1909.3457 21100.174 39.919872 0
1909.3541 21100.16 39.954304 0
1909.369 21100.135 39.989117 0
1909.394 21100.092 40.019539 0
1909.4012 21100.08 40.055603 0
1909.4137 21100.059 40.090221 0
1909.4257 21100.037 40.124046 0
1909.441 21100.012 40.158566 0
1909.4623 21099.975 40.192379 0
1909.7347 21099.502 40.530781 0
1909.8229 21099.348 40.559631 0
1909.9973 21099.045 40.582352 0
1909.3149 21100.383 39.275005 0
1909.3248 21100.367 39.309486 0
1909.3297 21100.359 39.343113 0
1909.3389 21100.344 39.377625 0
1909.3289 21100.361 39.415134 0
1909.3274 21100.365 39.451569 0
1909.344 21100.336 39.484535 0
1909.3468 21100.332 39.520023 0
1909.3414 21100.342 39.5564 0
1909.3402 21100.344 39.592766 0
1909.3336 21100.355 39.630993 0
1909.3405 21100.344 39.663998 0
1909.4382 21100.176 39.681206 0
1909.4258 21100.197 39.719841 0
1909.4188 21100.209 39.756935 0
1909.3282 21100.367 39.810352 0
1909.3348 21100.355 39.845703 0
1909.3468 21100.336 39.878204 0
1909.3564 21100.32 39.912903 0
1909.3638 21100.307 39.947857 0
1909.3823 21100.275 39.981285 0
1909.3989 21100.248 40.013271 0
1909.4119 21100.225 40.047775 0
1909.4283 21100.197 40.0816 0
1909.4689 21100.127 40.11055 0
1909.7991 21099.559 40.512257 0
1909.8488 21099.473 40.545376 0
1909.9906 21099.227 40.571247 0
1909.3317 21100.518 39.273914 0
1909.3331 21100.514 39.308704 0
1909.389 21100.418 39.33091 0
1909.3453 21100.494 39.378071 0
1909.348 21100.49 39.412415 0
1909.3418 21100.502 39.44976 0
1909.3417 21100.502 39.486168 0
1909.3524 21100.484 39.5182 0
1909.3948 21100.412 39.545444 0
1909.4045 21100.395 39.579109 0
1909.3719 21100.453 39.622871 0
1909.3523 21100.486 39.661251 0
1909.3466 21100.498 39.699085 0
1909.3582 21100.477 39.732224 0
1909.5071 21100.219 39.738312 0
1909.4913 21100.248 39.777863 0
1909.3413 21100.508 39.842697 0
1909.3514 21100.49 39.875248 0
1909.3679 21100.463 39.908306 0
1909.3818 21100.439 39.941841 0
1909.3989 21100.41 39.973576 0
1909.4143 21100.385 40.007435 0
1909.4285 21100.359 40.041264 0
1909.4497 21100.324 40.073086 0
1909.5051 21100.229 40.100567 0
1909.9048 21099.543 40.531193 0
1909.9967 21099.387 40.561234 0
1910.2223 21098.996 40.578117 0
1909.3354 21100.672 39.273544 0
1909.3308 21100.68 39.310146 0
1909.3461 21100.654 39.342655 0
1909.37 21100.615 39.371033 0
1909.3872 21100.586 39.403481 0
1909.3495 21100.65 39.447994 0
1909.348 21100.654 39.484585 0
1909.3574 21100.639 39.51675 0
1909.4136 21100.541 39.540154 0
1909.3573 21100.639 39.586956 0
1909.3511 21100.65 39.624165 0
1909.3544 21100.645 39.659267 0
1909.3662 21100.625 39.69265 0
1909.3832 21100.598 39.723961 0
1909.576 21100.266 39.72147 0
1909.4457 21100.49 39.783714 0
1909.3573 21100.643 39.834522 0
1909.3694 21100.623 39.868603 0
1909.3855 21100.596 39.901047 0
1909.3988 21100.572 39.933651 0
1909.4165 21100.543 39.966038 0
1909.4331 21100.516 39.999672 0
1909.4469 21100.492 40.03286 0
1909.4828 21100.43 40.062462 0
1909.5441 21100.326 40.088692 0
1909.6034 21100.225 40.116741 0
1909.984 21099.576 40.512756 0
1910.0387 21099.482 40.546352 0
1910.2205 21099.172 40.566875 0
1909.3971 21100.727 39.296078 0
1909.3835 21100.75 39.335747 0
1909.376 21100.764 39.371677 0
1909.3735 21100.77 39.408356 0
1909.3711 21100.773 39.44442 0
1909.3728 21100.771 39.478367 0
1909.3755 21100.768 39.513546 0
1909.3796 21100.76 39.548073 0
1909.3871 21100.748 39.581112 0
1909.3973 21100.732 39.614162 0
1909.3633 21100.791 39.657238 0
1909.3639 21100.789 39.690987 0
1909.3676 21100.785 39.726231 0
1909.3733 21100.773 39.760014 0
1909.382 21100.76 39.794518 0
1909.3896 21100.748 39.826763 0
1909.3993 21100.732 39.861008 0
1909.41 21100.713 39.894218 0
1909.4204 21100.697 39.926914 0
1909.4386 21100.666 39.959106 0
1909.4529 21100.643 39.992893 0
1909.4733 21100.607 40.023659 0
1909.5248 21100.521 40.05146 0
1909.5878 21100.414 40.077686 0
1909.6603 21100.291 40.10165 0
1910.1067 21099.535 40.528912 0
1910.2316 21099.322 40.555954 0
1909.4855 21100.736 39.310207 0
1909.4675 21100.768 39.350857 0
1909.4069 21100.871 39.400959 0
1909.3959 21100.891 39.473507 0
1909.392 21100.898 39.510223 0
1909.3914 21100.9 39.54414 0
1909.39 21100.902 39.579979 0
1909.3907 21100.902 39.614872 0
1909.3929 21100.898 39.650013 0
1909.3969 21100.893 39.718624 0
1909.4045 21100.881 39.752331 0
1909.4148 21100.863 39.784092 0
1909.4202 21100.855 39.818733 0
1909.4283 21100.842 39.852409 0
1909.436 21100.828 39.885422 0
1909.4462 21100.812 39.91864 0
1909.4639 21100.783 39.951485 0
1909.4784 21100.76 39.9828 0
1909.5128 21100.701 40.013176 0
1909.5676 21100.609 40.039574 0
1909.6321 21100.5 40.064686 0
1909.707 21100.373 40.088989 0
1909.8077 21100.203 40.111137 0
1910.1827 21099.572 40.511196 0
1910.2673 21099.43 40.542461 0
1909.4708 21100.922 39.352512 0
1909.4437 21100.969 39.394016 0
1909.4308 21100.99 39.431633 0
1909.4252 21101.002 39.468071 0
1909.4204 21101.01 39.504601 0
1909.4199 21101.012 39.538643 0
1909.4174 21101.016 39.57423 0
1909.4167 21101.018 39.60981 0
1909.4171 21101.018 39.643257 0
1909.4215 21101.012 39.712585 0
1909.4309 21100.996 39.744995 0
1909.4448 21100.973 39.776886 0
1909.4506 21100.963 39.811523 0
1909.4567 21100.953 39.843887 0
1909.4658 21100.939 39.877789 0
1909.4749 21100.924 39.911125 0
1909.4908 21100.898 39.94397 0
1909.5089 21100.869 39.974476 0
1909.557 21100.787 40.002281 0
1909.6146 21100.691 40.028275 0
1909.6833 21100.576 40.052212 0
1909.7524 21100.459 40.077667 0
1909.8367 21100.318 40.101601 0
1910.3336 21099.486 40.526493 0
1909.5387 21100.969 39.337772 0
1909.4885 21101.053 39.384464 0
1909.4711 21101.084 39.423523 0
1909.4637 21101.096 39.461018 0
1909.4592 21101.105 39.495567 0
1909.4554 21101.111 39.531876 0
1909.4524 21101.117 39.567322 0
1909.4512 21101.119 39.601345 0
1909.4509 21101.121 39.636211 0
1909.4532 21101.119 39.705658 0
1909.464 21101.102 39.737499 0
1909.4771 21101.08 39.769859 0
1909.4843 21101.066 39.803486 0
1909.4908 21101.057 39.836132 0
1909.4985 21101.045 39.869484 0
1909.5106 21101.025 39.90266 0
1909.525 21101.002 39.933628 0
1909.5571 21100.949 39.963783 0
1909.608 21100.863 39.990295 0
1909.6683 21100.764 40.015038 0
1909.7332 21100.654 40.039989 0
1909.8177 21100.514 40.063583 0
1909.8982 21100.379 40.08601 0
1910.0073 21100.197 40.107304 0
1910.4254 21099.502 40.506401 0
1909.5529 21101.104 39.370308 0
1909.5348 21101.135 39.409775 0
1909.5222 21101.156 39.446507 0
1909.5171 21101.166 39.483143 0
1909.511 21101.178 39.519169 0
1909.5079 21101.184 39.555233 0
1909.5043 21101.189 39.589268 0
1909.5045 21101.189 39.624626 0
1909.4966 21101.203 39.660805 0
1909.4971 21101.203 39.69463 0
1909.5112 21101.18 39.726234 0
1909.5292 21101.15 39.758163 0
1909.5813 21101.064 39.781322 0
1909.6002 21101.033 39.813225 0
1909.5709 21101.082 39.853592 0
1909.5605 21101.102 39.889374 0
1909.5774 21101.074 39.921455 0
1909.6105 21101.02 39.95079 0
1909.6613 21100.936 39.976295 0
1909.7196 21100.838 40.001991 0
1909.7861 21100.729 40.027195 0
1909.87 21100.588 40.050037 0
1909.9529 21100.451 40.072826 0
1910.0288 21100.326 40.097874 0
1910.5168 21099.52 40.487881 0
1909.6631 21101.08 39.345654 0
1909.6107 21101.166 39.394241 0
1909.5975 21101.189 39.430874 0
1909.6 21101.186 39.465893 0
1909.8981 21100.693 39.43285 0
1909.7021 21101.018 39.511692 0
1909.5736 21101.232 39.575504 0
1909.5734 21101.232 39.610432 0
1909.5662 21101.246 39.645592 0
1909.5675 21101.244 39.679981 0
1909.576 21101.23 39.713375 0
1909.6108 21101.174 39.739758 0
1909.6737 21101.07 39.763042 0
1909.6969 21101.031 39.793461 0
1909.7292 21100.979 39.82336 0
1909.7043 21101.021 39.864952 0
1909.6478 21101.115 39.907219 0
1909.6747 21101.07 39.937256 0
1909.7195 21100.998 39.964035 0
1909.7812 21100.896 39.988934 0
1909.8544 21100.775 40.013329 0
1909.9263 21100.656 40.036121 0
1910.01 21100.52 40.059986 0
1910.0995 21100.371 40.083015 0
1910.635 21099.49 40.467777 0
1909.752 21101.092 39.326752 0
1909.701 21101.176 39.372734 0
1909.6836 21101.205 39.412788 0
1909.676 21101.219 39.449448 0
1909.7794 21101.049 39.460129 0
1909.8734 21100.895 39.474197 0
1909.6537 21101.258 39.558727 0
1909.6517 21101.262 39.592655 0
1909.6492 21101.266 39.62817 0
1909.6456 21101.273 39.663868 0
1909.6527 21101.262 39.697353 0
1909.6724 21101.23 39.727074 0
1909.7546 21101.096 39.746056 0
1909.7417 21101.117 39.783821 0
1909.7528 21101.098 39.815441 0
1909.7612 21101.086 39.849564 0
1909.7255 21101.146 39.89093 0
1909.743 21101.117 39.922016 0
1909.7845 21101.049 39.949642 0
1909.8495 21100.943 39.974812 0
1909.9155 21100.836 39.99778 0
1909.9895 21100.715 40.02272 0
1910.0728 21100.578 40.045498 0
1910.1647 21100.428 40.06744 0
1910.2458 21100.293 40.092255 0
1909.7993 21101.172 39.352417 0
1909.7743 21101.213 39.393799 0
1909.7638 21101.23 39.431713 0
1909.8218 21101.137 39.452023 0
1909.8159 21101.146 39.489277 0
1909.7686 21101.225 39.534821 0
1909.7366 21101.277 39.575977 0
1909.7352 21101.281 39.610909 0
1909.729 21101.293 39.647572 0
1909.7345 21101.283 39.679577 0
1909.7469 21101.264 39.712517 0
1909.7915 21101.191 39.738396 0
1909.8353 21101.121 39.76585 0
1909.8379 21101.117 39.798843 0
1909.8491 21101.1 39.832443 0
1909.8052 21101.172 39.875511 0
1909.8221 21101.145 39.906197 0
1909.8568 21101.088 39.935856 0
1909.9128 21100.998 39.961575 0
1909.9813 21100.887 39.985058 0
1910.0521 21100.771 40.009396 0
1910.1412 21100.625 40.032169 0
1910.228 21100.484 40.053734 0
1910.3234 21100.33 40.077305 0
1909.9286 21101.117 39.323933 0
1909.8696 21101.213 39.373295 0
1909.856 21101.236 39.410759 0
1909.8461 21101.252 39.448727 0
1909.8359 21101.27 39.486088 0
1909.8334 21101.275 39.520786 0
1909.8215 21101.295 39.55814 0
1909.8213 21101.297 39.593643 0
1909.8154 21101.307 39.628113 0
1909.8168 21101.305 39.663357 0
1909.826 21101.291 39.696087 0
1909.8506 21101.252 39.726891 0
1909.8612 21101.234 39.758156 0
1909.8715 21101.219 39.791851 0
1909.8876 21101.191 39.823692 0
1909.8875 21101.193 39.85791 0
1909.9026 21101.17 39.890266 0
1909.9283 21101.129 39.921253 0
1909.9777 21101.049 39.947044 0
1910.0422 21100.945 39.971855 0
1910.1165 21100.824 39.995972 0
1910.2007 21100.689 40.017357 0
1910.2913 21100.541 40.040489 0
1910.395 21100.373 40.061749 0
1910.5337 21100.148 40.078278 0
1910.7965 21099.727 40.272602 0
1909.9734 21101.199 39.351879 0
1909.9897 21101.174 39.381931 0
1909.9407 21101.254 39.429161 0
1910.0243 21101.119 39.444149 0
1909.931 21101.271 39.50045 0
1909.9144 21101.299 39.539722 0
1909.9102 21101.307 39.575539 0
1909.9106 21101.307 39.609642 0
1909.9042 21101.318 39.645737 0
1909.9099 21101.311 39.680042 0
1909.9281 21101.281 39.709713 0
1909.9543 21101.238 39.740372 0
1909.9568 21101.236 39.774651 0
1909.9656 21101.223 39.80751 0
1909.9735 21101.209 39.841011 0
1909.9865 21101.189 39.874413 0
1910.007 21101.158 39.905659 0
1910.0464 21101.094 39.933334 0
1910.108 21100.996 39.958652 0
1910.1818 21100.877 39.982765 0
1910.2648 21100.744 40.004566 0
1910.3589 21100.592 40.026577 0
1910.4652 21100.422 40.047791 0
1910.5654 21100.26 40.068874 0
1910.7749 21099.924 40.153397 0
1910.8296 21099.836 40.184448 0
1910.1195 21101.119 39.319122 0
1910.092 21101.164 39.397461 0
1910.047 21101.238 39.442585 0
1910.077 21101.189 39.471203 0
1910.1046 21101.146 39.500931 0
1909.9967 21101.32 39.55843 0
1909.9984 21101.318 39.593224 0
1910.0002 21101.316 39.628128 0
1909.9972 21101.322 39.662441 0
1910.0082 21101.307 39.695812 0
1910.0337 21101.266 39.72567 0
1910.0594 21101.225 39.755211 0
1910.1045 21101.152 39.781937 0
1910.0745 21101.203 39.858299 0
1910.0907 21101.178 39.889919 0
1910.121 21101.129 39.919937 0
1910.179 21101.037 39.946297 0
1910.2516 21100.922 39.968719 0
1910.3323 21100.793 39.992611 0
1910.427 21100.641 40.013859 0
1910.5353 21100.467 40.033749 0
1910.6449 21100.291 40.054646 0
1910.8092 21100.029 40.069477 0
1910.8679 21099.934 40.099537 0
1910.1576 21101.211 39.350529 0
1910.193 21101.156 39.376949 0
1910.1298 21101.258 39.426842 0
1910.1288 21101.26 39.463131 0
1910.1217 21101.273 39.498482 0
1910.0948 21101.316 39.54026 0
1910.0956 21101.316 39.575066 0
1910.0952 21101.318 39.610844 0
1910.0935 21101.322 39.644913 0
1910.0992 21101.312 39.679314 0
1910.1212 21101.279 39.709938 0
1910.1511 21101.232 39.738541 0
1910.1506 21101.234 39.774155 0
1910.162 21101.215 39.807652 0
1910.1664 21101.209 39.84103 0
1910.1798 21101.189 39.874031 0
1910.2052 21101.148 39.905399 0
1910.2546 21101.07 39.931156 0
1910.3263 21100.957 39.955837 0
1910.4095 21100.824 39.978256 0
1910.506 21100.672 40.000446 0
1910.6034 21100.518 40.020737 0
1910.7356 21100.307 40.039299 0
1910.2061 21101.299 39.694691 0
1910.2279 21101.264 39.725559 0
1910.2397 21101.246 39.759441 0
1910.264 21101.209 39.824726 0
1910.2738 21101.195 39.858135 0
1910.2957 21101.16 39.889069 0
1910.3353 21101.098 39.917839 0
1910.4044 21100.99 39.942822 0
1910.4871 21100.859 39.965633 0
1910.5881 21100.699 39.98534 0
1910.6859 21100.545 40.007153 0
1910.8485 21100.287 40.020966 0
